# .PCD v0.7 - Point Cloud Data file format
VERSION 0.7
FIELDS x y z
SIZE 4 4 4
TYPE F F F
COUNT 1 1 1
WIDTH 1701
HEIGHT 1
VIEWPOINT 0 0 0 1 0 0 0
POINTS 1701
DATA ascii
-0.65032703 -2.0994759 0.45000002
-0.65032703 -2.0994759 0.5
-0.65032703 -2.0994759 0.55000001
-0.65032703 -2.0994759 0.60000002
-0.65032703 -2.0994759 0.65000004
-0.65032703 -2.0994759 0.69999999
-0.65032703 -2.0994759 0.75
-0.65032703 -2.0994759 0.80000001
-0.65032703 -2.0994759 0.85000002
-0.65032703 -2.0994759 0.90000004
-0.65032703 -2.0994759 0.94999999
-0.65032703 -2.0994759 1
-0.65032703 -2.0994759 1.0500001
-0.65032703 -2.0994759 1.1
-0.65032703 -2.0994759 1.15
-0.65032703 -2.0994759 1.2
-0.65032703 -2.0994759 1.25
-0.65032703 -2.0994759 1.3000001
-0.65032703 -2.0994759 1.35
-0.65032703 -2.0994759 1.4
-0.65032703 -2.0994759 1.45
-0.65032703 -2.0994759 1.5
-0.65032703 -2.0994759 1.5500001
-0.65032703 -2.0994759 1.6
-0.65032703 -2.0994759 1.65
-0.65032703 -2.0994759 1.7
-0.65032703 -2.0994759 1.75
-0.65032703 -2.0994759 1.8000001
-0.65032703 -2.0994759 1.85
-0.65032703 -2.0994759 1.9
-0.65032703 -2.0994759 1.95
2.6996729 -2.0994759 0
2.6996729 -2.0994759 0.050000001
2.6996729 -2.0994759 0.1
2.6996729 -2.0994759 0.15000001
2.6996729 -2.0994759 0.2
2.6996729 -2.0994759 0.25
2.6996729 -2.0994759 0.30000001
2.6996729 -2.0994759 0.34999999
2.6996729 -2.0994759 0.40000001
2.6996729 -2.0994759 0.45000002
2.6996729 -2.0994759 0.5
2.6996729 -2.0994759 0.55000001
2.6996729 -2.0994759 0.60000002
2.6996729 -2.0994759 0.65000004
2.6996729 -2.0994759 0.69999999
2.6996729 -2.0994759 0.75
2.6996729 -2.0994759 0.80000001
2.6996729 -2.0994759 0.85000002
2.6996729 -2.0994759 0.90000004
2.6996729 -2.0994759 0.94999999
2.6996729 -2.0994759 1
2.6996729 -2.0994759 1.0500001
2.6996729 -2.0994759 1.1
2.6996729 -2.0994759 1.15
2.6996729 -2.0994759 1.2
2.6996729 -2.0994759 1.25
2.6996729 -2.0994759 1.3000001
2.6996729 -2.0994759 1.35
2.6996729 -2.0994759 1.4
2.6996729 -2.0994759 1.45
2.6996729 -2.0994759 1.5
2.6996729 -2.0994759 1.5500001
2.6996729 -2.0994759 1.6
2.6996729 -2.0994759 1.65
2.6996729 -2.0994759 1.7
2.6996729 -2.0994759 1.75
2.6996729 -2.0994759 1.8000001
2.6996729 -2.0994759 1.85
2.6996729 -2.0994759 1.9
2.6996729 -2.0994759 1.95
2.7496731 -2.0994759 0
2.7496731 -2.0994759 0.050000001
2.7496731 -2.0994759 0.1
2.7496731 -2.0994759 0.15000001
2.7496731 -2.0994759 0.2
2.7496731 -2.0994759 0.25
2.7496731 -2.0994759 0.30000001
2.7496731 -2.0994759 0.34999999
2.7496731 -2.0994759 0.40000001
2.7496731 -2.0994759 0.45000002
2.7496731 -2.0994759 0.5
2.7496731 -2.0994759 0.55000001
2.7496731 -2.0994759 0.60000002
2.7496731 -2.0994759 0.65000004
2.7496731 -2.0994759 0.69999999
2.7496731 -2.0994759 0.75
2.7496731 -2.0994759 0.80000001
2.7496731 -2.0994759 0.85000002
2.7496731 -2.0994759 0.90000004
2.7496731 -2.0994759 0.94999999
2.7496731 -2.0994759 1
2.7496731 -2.0994759 1.0500001
2.7496731 -2.0994759 1.1
2.7496731 -2.0994759 1.15
2.7496731 -2.0994759 1.2
2.7496731 -2.0994759 1.25
2.7496731 -2.0994759 1.3000001
2.7496731 -2.0994759 1.35
2.7496731 -2.0994759 1.4
2.7496731 -2.0994759 1.45
2.7496731 -2.0994759 1.5
2.7496731 -2.0994759 1.5500001
2.7496731 -2.0994759 1.6
2.7496731 -2.0994759 1.65
2.7496731 -2.0994759 1.7
2.7496731 -2.0994759 1.75
2.7496731 -2.0994759 1.8000001
2.7496731 -2.0994759 1.85
2.7496731 -2.0994759 1.9
2.7496731 -2.0994759 1.95
2.7996731 -2.0994759 0
2.7996731 -2.0994759 0.050000001
2.7996731 -2.0994759 0.1
2.7996731 -2.0994759 0.15000001
2.7996731 -2.0994759 0.2
2.7996731 -2.0994759 0.25
2.7996731 -2.0994759 0.30000001
2.7996731 -2.0994759 0.34999999
2.7996731 -2.0994759 0.40000001
2.7996731 -2.0994759 0.45000002
2.7996731 -2.0994759 0.5
2.7996731 -2.0994759 0.55000001
2.7996731 -2.0994759 0.60000002
2.7996731 -2.0994759 0.65000004
2.7996731 -2.0994759 0.69999999
2.7996731 -2.0994759 0.75
2.7996731 -2.0994759 0.80000001
2.7996731 -2.0994759 0.85000002
2.7996731 -2.0994759 0.90000004
2.7996731 -2.0994759 0.94999999
2.7996731 -2.0994759 1
2.7996731 -2.0994759 1.0500001
2.7996731 -2.0994759 1.1
2.7996731 -2.0994759 1.15
2.7996731 -2.0994759 1.2
2.7996731 -2.0994759 1.25
2.7996731 -2.0994759 1.3000001
2.7996731 -2.0994759 1.35
2.7996731 -2.0994759 1.4
2.7996731 -2.0994759 1.45
2.7996731 -2.0994759 1.5
2.7996731 -2.0994759 1.5500001
2.7996731 -2.0994759 1.6
2.7996731 -2.0994759 1.65
2.7996731 -2.0994759 1.7
2.7996731 -2.0994759 1.75
2.7996731 -2.0994759 1.8000001
2.7996731 -2.0994759 1.85
2.7996731 -2.0994759 1.9
2.7996731 -2.0994759 1.95
2.849673 -2.0994759 0
2.849673 -2.0994759 0.050000001
2.849673 -2.0994759 0.1
2.849673 -2.0994759 0.15000001
2.849673 -2.0994759 0.2
2.849673 -2.0994759 0.25
2.849673 -2.0994759 0.30000001
2.849673 -2.0994759 0.34999999
2.849673 -2.0994759 0.40000001
2.849673 -2.0994759 0.45000002
2.849673 -2.0994759 0.5
2.849673 -2.0994759 0.55000001
2.849673 -2.0994759 0.60000002
2.849673 -2.0994759 0.65000004
2.849673 -2.0994759 0.69999999
2.849673 -2.0994759 0.75
2.849673 -2.0994759 0.80000001
2.849673 -2.0994759 0.85000002
2.849673 -2.0994759 0.90000004
2.849673 -2.0994759 0.94999999
2.849673 -2.0994759 1
2.849673 -2.0994759 1.0500001
2.849673 -2.0994759 1.1
2.849673 -2.0994759 1.15
2.849673 -2.0994759 1.2
2.849673 -2.0994759 1.25
2.849673 -2.0994759 1.3000001
2.849673 -2.0994759 1.35
2.849673 -2.0994759 1.4
2.849673 -2.0994759 1.45
2.849673 -2.0994759 1.5
2.849673 -2.0994759 1.5500001
2.849673 -2.0994759 1.6
2.849673 -2.0994759 1.65
2.849673 -2.0994759 1.7
2.849673 -2.0994759 1.75
2.849673 -2.0994759 1.8000001
2.849673 -2.0994759 1.85
2.849673 -2.0994759 1.9
2.849673 -2.0994759 1.95
4.7496729 -2.0994759 0
4.7496729 -2.0994759 0.050000001
4.7496729 -2.0994759 0.1
4.7496729 -2.0994759 0.15000001
4.7496729 -2.0994759 0.2
4.7496729 -2.0994759 0.25
4.7496729 -2.0994759 0.30000001
4.7496729 -2.0994759 0.34999999
4.7496729 -2.0994759 0.40000001
4.7496729 -2.0994759 0.45000002
4.7496729 -2.0994759 0.5
4.7496729 -2.0994759 0.55000001
4.7496729 -2.0994759 0.60000002
4.7496729 -2.0994759 0.65000004
4.7496729 -2.0994759 0.69999999
4.7496729 -2.0994759 0.75
4.7496729 -2.0994759 0.80000001
4.7496729 -2.0994759 0.85000002
4.7496729 -2.0994759 0.90000004
4.7496729 -2.0994759 0.94999999
4.7496729 -2.0994759 1
4.7496729 -2.0994759 1.0500001
4.7496729 -2.0994759 1.1
4.7496729 -2.0994759 1.15
4.7496729 -2.0994759 1.2
4.7496729 -2.0994759 1.25
4.7496729 -2.0994759 1.3000001
4.7496729 -2.0994759 1.35
4.7496729 -2.0994759 1.4
4.7496729 -2.0994759 1.45
4.7496729 -2.0994759 1.5
4.7496729 -2.0994759 1.5500001
4.7496729 -2.0994759 1.6
4.7496729 -2.0994759 1.65
4.7496729 -2.0994759 1.7
4.7496729 -2.0994759 1.75
4.7496729 -2.0994759 1.8000001
4.7496729 -2.0994759 1.85
4.7496729 -2.0994759 1.9
4.7496729 -2.0994759 1.95
4.7996731 -2.0994759 0
4.7996731 -2.0994759 0.050000001
4.7996731 -2.0994759 0.1
4.7996731 -2.0994759 0.15000001
4.7996731 -2.0994759 0.2
4.7996731 -2.0994759 0.25
4.7996731 -2.0994759 0.30000001
4.7996731 -2.0994759 0.34999999
4.7996731 -2.0994759 0.40000001
4.7996731 -2.0994759 0.45000002
4.7996731 -2.0994759 0.5
4.7996731 -2.0994759 0.55000001
4.7996731 -2.0994759 0.60000002
4.7996731 -2.0994759 0.65000004
4.7996731 -2.0994759 0.69999999
4.7996731 -2.0994759 0.75
4.7996731 -2.0994759 0.80000001
4.7996731 -2.0994759 0.85000002
4.7996731 -2.0994759 0.90000004
4.7996731 -2.0994759 0.94999999
4.7996731 -2.0994759 1
4.7996731 -2.0994759 1.0500001
4.7996731 -2.0994759 1.1
4.7996731 -2.0994759 1.15
4.7996731 -2.0994759 1.2
4.7996731 -2.0994759 1.25
4.7996731 -2.0994759 1.3000001
4.7996731 -2.0994759 1.35
4.7996731 -2.0994759 1.4
4.7996731 -2.0994759 1.45
4.7996731 -2.0994759 1.5
4.7996731 -2.0994759 1.5500001
4.7996731 -2.0994759 1.6
4.7996731 -2.0994759 1.65
4.7996731 -2.0994759 1.7
4.7996731 -2.0994759 1.75
4.7996731 -2.0994759 1.8000001
4.7996731 -2.0994759 1.85
4.7996731 -2.0994759 1.9
4.7996731 -2.0994759 1.95
4.8496733 -2.0994759 0
4.8496733 -2.0994759 0.050000001
4.8496733 -2.0994759 0.1
4.8496733 -2.0994759 0.15000001
4.8496733 -2.0994759 0.2
4.8496733 -2.0994759 0.25
4.8496733 -2.0994759 0.30000001
4.8496733 -2.0994759 0.34999999
4.8496733 -2.0994759 0.40000001
4.8496733 -2.0994759 0.45000002
4.8496733 -2.0994759 0.5
4.8496733 -2.0994759 0.55000001
4.8496733 -2.0994759 0.60000002
4.8496733 -2.0994759 0.65000004
4.8496733 -2.0994759 0.69999999
4.8496733 -2.0994759 0.75
4.8496733 -2.0994759 0.80000001
4.8496733 -2.0994759 0.85000002
4.8496733 -2.0994759 0.90000004
4.8496733 -2.0994759 0.94999999
4.8496733 -2.0994759 1
4.8496733 -2.0994759 1.0500001
4.8496733 -2.0994759 1.1
4.8496733 -2.0994759 1.15
4.8496733 -2.0994759 1.2
4.8496733 -2.0994759 1.25
4.8496733 -2.0994759 1.3000001
4.8496733 -2.0994759 1.35
4.8496733 -2.0994759 1.4
4.8496733 -2.0994759 1.45
4.8496733 -2.0994759 1.5
4.8496733 -2.0994759 1.5500001
4.8496733 -2.0994759 1.6
4.8496733 -2.0994759 1.65
4.8496733 -2.0994759 1.7
4.8496733 -2.0994759 1.75
4.8496733 -2.0994759 1.8000001
4.8496733 -2.0994759 1.85
4.8496733 -2.0994759 1.9
4.8496733 -2.0994759 1.95
4.899673 -2.0994759 0
4.899673 -2.0994759 0.050000001
4.899673 -2.0994759 0.1
4.899673 -2.0994759 0.15000001
4.899673 -2.0994759 0.2
4.899673 -2.0994759 0.25
4.899673 -2.0994759 0.30000001
4.899673 -2.0994759 0.34999999
4.899673 -2.0994759 0.40000001
4.899673 -2.0994759 0.45000002
4.899673 -2.0994759 0.5
4.899673 -2.0994759 0.55000001
4.899673 -2.0994759 0.60000002
4.899673 -2.0994759 0.65000004
4.899673 -2.0994759 0.69999999
4.899673 -2.0994759 0.75
4.899673 -2.0994759 0.80000001
4.899673 -2.0994759 0.85000002
4.899673 -2.0994759 0.90000004
4.899673 -2.0994759 0.94999999
4.899673 -2.0994759 1
4.899673 -2.0994759 1.0500001
4.899673 -2.0994759 1.1
4.899673 -2.0994759 1.15
4.899673 -2.0994759 1.2
4.899673 -2.0994759 1.25
4.899673 -2.0994759 1.3000001
4.899673 -2.0994759 1.35
4.899673 -2.0994759 1.4
4.899673 -2.0994759 1.45
4.899673 -2.0994759 1.5
4.899673 -2.0994759 1.5500001
4.899673 -2.0994759 1.6
4.899673 -2.0994759 1.65
4.899673 -2.0994759 1.7
4.899673 -2.0994759 1.75
4.899673 -2.0994759 1.8000001
4.899673 -2.0994759 1.85
4.899673 -2.0994759 1.9
4.899673 -2.0994759 1.95
4.9496732 -2.0994759 0
4.9496732 -2.0994759 0.050000001
4.9496732 -2.0994759 0.1
4.9496732 -2.0994759 0.15000001
4.9496732 -2.0994759 0.2
4.9496732 -2.0994759 0.25
4.9496732 -2.0994759 0.30000001
4.9496732 -2.0994759 0.34999999
4.9496732 -2.0994759 0.40000001
4.9496732 -2.0994759 0.45000002
4.9496732 -2.0994759 0.5
4.9496732 -2.0994759 0.55000001
4.9496732 -2.0994759 0.60000002
4.9496732 -2.0994759 0.65000004
4.9496732 -2.0994759 0.69999999
4.9496732 -2.0994759 0.75
4.9496732 -2.0994759 0.80000001
4.9496732 -2.0994759 0.85000002
4.9496732 -2.0994759 0.90000004
4.9496732 -2.0994759 0.94999999
4.9496732 -2.0994759 1
4.9496732 -2.0994759 1.0500001
4.9496732 -2.0994759 1.1
4.9496732 -2.0994759 1.15
4.9496732 -2.0994759 1.2
4.9496732 -2.0994759 1.25
4.9496732 -2.0994759 1.3000001
4.9496732 -2.0994759 1.35
4.9496732 -2.0994759 1.4
4.9496732 -2.0994759 1.45
4.9496732 -2.0994759 1.5
4.9496732 -2.0994759 1.5500001
4.9496732 -2.0994759 1.6
4.9496732 -2.0994759 1.65
4.9496732 -2.0994759 1.7
4.9496732 -2.0994759 1.75
4.9496732 -2.0994759 1.8000001
4.9496732 -2.0994759 1.85
4.9496732 -2.0994759 1.9
4.9496732 -2.0994759 1.95
6.2496729 -2.0994759 0
6.2496729 -2.0994759 0.050000001
6.2496729 -2.0994759 0.1
6.2496729 -2.0994759 0.15000001
6.2496729 -2.0994759 0.2
6.2496729 -2.0994759 0.25
6.2496729 -2.0994759 0.30000001
6.2496729 -2.0994759 0.34999999
6.2496729 -2.0994759 0.40000001
6.2496729 -2.0994759 0.45000002
6.2496729 -2.0994759 0.5
6.2496729 -2.0994759 0.55000001
6.2496729 -2.0994759 0.60000002
6.2496729 -2.0994759 0.65000004
6.2496729 -2.0994759 0.69999999
6.2496729 -2.0994759 0.75
6.2496729 -2.0994759 0.80000001
6.2496729 -2.0994759 0.85000002
6.2496729 -2.0994759 0.90000004
6.2496729 -2.0994759 0.94999999
6.2496729 -2.0994759 1
6.2496729 -2.0994759 1.0500001
6.2496729 -2.0994759 1.1
6.2496729 -2.0994759 1.15
6.2496729 -2.0994759 1.2
6.2496729 -2.0994759 1.25
6.2496729 -2.0994759 1.3000001
6.2496729 -2.0994759 1.35
6.2496729 -2.0994759 1.4
6.2496729 -2.0994759 1.45
6.2496729 -2.0994759 1.5
6.2496729 -2.0994759 1.5500001
6.2496729 -2.0994759 1.6
6.2496729 -2.0994759 1.65
6.2496729 -2.0994759 1.7
6.2496729 -2.0994759 1.75
6.2496729 -2.0994759 1.8000001
6.2496729 -2.0994759 1.85
6.2496729 -2.0994759 1.9
6.2496729 -2.0994759 1.95
6.2996731 -2.0994759 0
6.2996731 -2.0994759 0.050000001
6.2996731 -2.0994759 0.1
6.2996731 -2.0994759 0.15000001
6.2996731 -2.0994759 0.2
6.2996731 -2.0994759 0.25
6.2996731 -2.0994759 0.30000001
6.2996731 -2.0994759 0.34999999
6.2996731 -2.0994759 0.40000001
6.2996731 -2.0994759 0.45000002
6.2996731 -2.0994759 0.5
6.2996731 -2.0994759 0.55000001
6.2996731 -2.0994759 0.60000002
6.2996731 -2.0994759 0.65000004
6.2996731 -2.0994759 0.69999999
6.2996731 -2.0994759 0.75
6.2996731 -2.0994759 0.80000001
6.2996731 -2.0994759 0.85000002
6.2996731 -2.0994759 0.90000004
6.2996731 -2.0994759 0.94999999
6.2996731 -2.0994759 1
6.2996731 -2.0994759 1.0500001
6.2996731 -2.0994759 1.1
6.2996731 -2.0994759 1.15
6.2996731 -2.0994759 1.2
6.2996731 -2.0994759 1.25
6.2996731 -2.0994759 1.3000001
6.2996731 -2.0994759 1.35
6.2996731 -2.0994759 1.4
6.2996731 -2.0994759 1.45
6.2996731 -2.0994759 1.5
6.2996731 -2.0994759 1.5500001
6.2996731 -2.0994759 1.6
6.2996731 -2.0994759 1.65
6.2996731 -2.0994759 1.7
6.2996731 -2.0994759 1.75
6.2996731 -2.0994759 1.8000001
6.2996731 -2.0994759 1.85
6.2996731 -2.0994759 1.9
6.2996731 -2.0994759 1.95
-0.70032698 -2.0494759 0
-0.70032698 -2.0494759 0.050000001
-0.70032698 -2.0494759 0.1
-0.70032698 -2.0494759 0.15000001
-0.70032698 -2.0494759 0.2
-0.70032698 -2.0494759 0.25
-0.70032698 -2.0494759 0.30000001
-0.70032698 -2.0494759 0.34999999
-0.70032698 -2.0494759 0.40000001
-0.70032698 -2.0494759 0.45000002
-0.70032698 -2.0494759 0.5
-0.70032698 -2.0494759 0.55000001
-0.70032698 -2.0494759 0.60000002
-0.70032698 -2.0494759 0.65000004
-0.70032698 -2.0494759 0.69999999
-0.70032698 -2.0494759 0.75
-0.70032698 -2.0494759 0.80000001
-0.70032698 -2.0494759 0.85000002
-0.70032698 -2.0494759 0.90000004
-0.70032698 -2.0494759 0.94999999
-0.70032698 -2.0494759 1
-0.70032698 -2.0494759 1.0500001
-0.70032698 -2.0494759 1.1
-0.70032698 -2.0494759 1.15
-0.70032698 -2.0494759 1.2
-0.70032698 -2.0494759 1.25
-0.70032698 -2.0494759 1.3000001
-0.70032698 -2.0494759 1.35
-0.70032698 -2.0494759 1.4
-0.70032698 -2.0494759 1.45
-0.70032698 -2.0494759 1.5
-0.70032698 -2.0494759 1.5500001
-0.70032698 -2.0494759 1.6
-0.70032698 -2.0494759 1.65
-0.70032698 -2.0494759 1.7
-0.70032698 -2.0494759 1.75
-0.70032698 -2.0494759 1.8000001
-0.70032698 -2.0494759 1.85
-0.70032698 -2.0494759 1.9
-0.70032698 -2.0494759 1.95
-0.65032703 -2.0494759 0
-0.65032703 -2.0494759 0.050000001
-0.65032703 -2.0494759 0.1
-0.65032703 -2.0494759 0.15000001
-0.65032703 -2.0494759 0.2
-0.65032703 -2.0494759 0.25
-0.65032703 -2.0494759 0.30000001
-0.65032703 -2.0494759 0.34999999
-0.65032703 -2.0494759 0.40000001
-0.65032703 -2.0494759 0.45000002
-0.65032703 -2.0494759 0.5
-0.65032703 -2.0494759 0.55000001
-0.65032703 -2.0494759 0.60000002
-0.65032703 -2.0494759 0.65000004
-0.65032703 -2.0494759 0.69999999
-0.65032703 -2.0494759 0.75
-0.65032703 -2.0494759 0.80000001
-0.65032703 -2.0494759 0.85000002
-0.65032703 -2.0494759 0.90000004
-0.65032703 -2.0494759 0.94999999
-0.65032703 -2.0494759 1
-0.65032703 -2.0494759 1.0500001
-0.65032703 -2.0494759 1.1
-0.65032703 -2.0494759 1.15
-0.65032703 -2.0494759 1.2
-0.65032703 -2.0494759 1.25
-0.65032703 -2.0494759 1.3000001
-0.65032703 -2.0494759 1.35
-0.65032703 -2.0494759 1.4
-0.65032703 -2.0494759 1.45
-0.65032703 -2.0494759 1.5
-0.65032703 -2.0494759 1.5500001
-0.65032703 -2.0494759 1.6
-0.65032703 -2.0494759 1.65
-0.65032703 -2.0494759 1.7
-0.65032703 -2.0494759 1.75
-0.65032703 -2.0494759 1.8000001
-0.65032703 -2.0494759 1.85
-0.65032703 -2.0494759 1.9
-0.65032703 -2.0494759 1.95
2.6996729 -2.0494759 0
2.6996729 -2.0494759 0.050000001
2.6996729 -2.0494759 0.1
2.6996729 -2.0494759 0.15000001
2.6996729 -2.0494759 0.2
2.6996729 -2.0494759 0.25
2.6996729 -2.0494759 0.30000001
2.6996729 -2.0494759 0.34999999
2.6996729 -2.0494759 0.40000001
2.6996729 -2.0494759 0.45000002
2.6996729 -2.0494759 0.5
2.6996729 -2.0494759 0.55000001
2.6996729 -2.0494759 0.60000002
2.6996729 -2.0494759 0.65000004
2.6996729 -2.0494759 0.69999999
2.6996729 -2.0494759 0.75
2.6996729 -2.0494759 0.80000001
2.6996729 -2.0494759 0.85000002
2.6996729 -2.0494759 0.90000004
2.6996729 -2.0494759 0.94999999
2.6996729 -2.0494759 1
2.6996729 -2.0494759 1.0500001
2.6996729 -2.0494759 1.1
2.6996729 -2.0494759 1.15
2.6996729 -2.0494759 1.2
2.6996729 -2.0494759 1.25
2.6996729 -2.0494759 1.3000001
2.6996729 -2.0494759 1.35
2.6996729 -2.0494759 1.4
2.6996729 -2.0494759 1.45
2.6996729 -2.0494759 1.5
2.6996729 -2.0494759 1.5500001
2.6996729 -2.0494759 1.6
2.6996729 -2.0494759 1.65
2.6996729 -2.0494759 1.7
2.6996729 -2.0494759 1.75
2.6996729 -2.0494759 1.8000001
2.6996729 -2.0494759 1.85
2.6996729 -2.0494759 1.9
2.6996729 -2.0494759 1.95
2.7496731 -2.0494759 0
2.7496731 -2.0494759 0.050000001
2.7496731 -2.0494759 0.1
2.7496731 -2.0494759 0.15000001
2.7496731 -2.0494759 0.2
2.7496731 -2.0494759 0.25
2.7496731 -2.0494759 0.30000001
2.7496731 -2.0494759 0.34999999
2.7496731 -2.0494759 0.40000001
2.7496731 -2.0494759 0.45000002
2.7496731 -2.0494759 0.5
2.7496731 -2.0494759 0.55000001
2.7496731 -2.0494759 0.60000002
2.7496731 -2.0494759 0.65000004
2.7496731 -2.0494759 0.69999999
2.7496731 -2.0494759 0.75
2.7496731 -2.0494759 0.80000001
2.7496731 -2.0494759 0.85000002
2.7496731 -2.0494759 0.90000004
2.7496731 -2.0494759 0.94999999
2.7496731 -2.0494759 1
2.7496731 -2.0494759 1.0500001
2.7496731 -2.0494759 1.1
2.7496731 -2.0494759 1.15
2.7496731 -2.0494759 1.2
2.7496731 -2.0494759 1.25
2.7496731 -2.0494759 1.3000001
2.7496731 -2.0494759 1.35
2.7496731 -2.0494759 1.4
2.7496731 -2.0494759 1.45
2.7496731 -2.0494759 1.5
2.7496731 -2.0494759 1.5500001
2.7496731 -2.0494759 1.6
2.7496731 -2.0494759 1.65
2.7496731 -2.0494759 1.7
2.7496731 -2.0494759 1.75
2.7496731 -2.0494759 1.8000001
2.7496731 -2.0494759 1.85
2.7496731 -2.0494759 1.9
2.7496731 -2.0494759 1.95
2.7996731 -2.0494759 0
2.7996731 -2.0494759 0.050000001
2.7996731 -2.0494759 0.1
2.7996731 -2.0494759 0.15000001
2.7996731 -2.0494759 0.2
2.7996731 -2.0494759 0.25
2.7996731 -2.0494759 0.30000001
2.7996731 -2.0494759 0.34999999
2.7996731 -2.0494759 0.40000001
2.7996731 -2.0494759 0.45000002
2.7996731 -2.0494759 0.5
2.7996731 -2.0494759 0.55000001
2.7996731 -2.0494759 0.60000002
2.7996731 -2.0494759 0.65000004
2.7996731 -2.0494759 0.69999999
2.7996731 -2.0494759 0.75
2.7996731 -2.0494759 0.80000001
2.7996731 -2.0494759 0.85000002
2.7996731 -2.0494759 0.90000004
2.7996731 -2.0494759 0.94999999
2.7996731 -2.0494759 1
2.7996731 -2.0494759 1.0500001
2.7996731 -2.0494759 1.1
2.7996731 -2.0494759 1.15
2.7996731 -2.0494759 1.2
2.7996731 -2.0494759 1.25
2.7996731 -2.0494759 1.3000001
2.7996731 -2.0494759 1.35
2.7996731 -2.0494759 1.4
2.7996731 -2.0494759 1.45
2.7996731 -2.0494759 1.5
2.7996731 -2.0494759 1.5500001
2.7996731 -2.0494759 1.6
2.7996731 -2.0494759 1.65
2.7996731 -2.0494759 1.7
2.7996731 -2.0494759 1.75
2.7996731 -2.0494759 1.8000001
2.7996731 -2.0494759 1.85
2.7996731 -2.0494759 1.9
2.7996731 -2.0494759 1.95
2.849673 -2.0494759 0
2.849673 -2.0494759 0.050000001
2.849673 -2.0494759 0.1
2.849673 -2.0494759 0.15000001
2.849673 -2.0494759 0.2
2.849673 -2.0494759 0.25
2.849673 -2.0494759 0.30000001
2.849673 -2.0494759 0.34999999
2.849673 -2.0494759 0.40000001
2.849673 -2.0494759 0.45000002
2.849673 -2.0494759 0.5
2.849673 -2.0494759 0.55000001
2.849673 -2.0494759 0.60000002
2.849673 -2.0494759 0.65000004
2.849673 -2.0494759 0.69999999
2.849673 -2.0494759 0.75
2.849673 -2.0494759 0.80000001
2.849673 -2.0494759 0.85000002
2.849673 -2.0494759 0.90000004
2.849673 -2.0494759 0.94999999
2.849673 -2.0494759 1
2.849673 -2.0494759 1.0500001
2.849673 -2.0494759 1.1
2.849673 -2.0494759 1.15
2.849673 -2.0494759 1.2
2.849673 -2.0494759 1.25
2.849673 -2.0494759 1.3000001
2.849673 -2.0494759 1.35
2.849673 -2.0494759 1.4
2.849673 -2.0494759 1.45
2.849673 -2.0494759 1.5
2.849673 -2.0494759 1.5500001
2.849673 -2.0494759 1.6
2.849673 -2.0494759 1.65
2.849673 -2.0494759 1.7
2.849673 -2.0494759 1.75
2.849673 -2.0494759 1.8000001
2.849673 -2.0494759 1.85
2.849673 -2.0494759 1.9
2.849673 -2.0494759 1.95
4.7496729 -2.0494759 0
4.7496729 -2.0494759 0.050000001
4.7496729 -2.0494759 0.1
4.7496729 -2.0494759 0.15000001
4.7496729 -2.0494759 0.2
4.7496729 -2.0494759 0.25
4.7496729 -2.0494759 0.30000001
4.7496729 -2.0494759 0.34999999
4.7496729 -2.0494759 0.40000001
4.7496729 -2.0494759 0.45000002
4.7496729 -2.0494759 0.5
4.7496729 -2.0494759 0.55000001
4.7496729 -2.0494759 0.60000002
4.7496729 -2.0494759 0.65000004
4.7496729 -2.0494759 0.69999999
4.7496729 -2.0494759 0.75
4.7496729 -2.0494759 0.80000001
4.7496729 -2.0494759 0.85000002
4.7496729 -2.0494759 0.90000004
4.7496729 -2.0494759 0.94999999
4.7496729 -2.0494759 1
4.7496729 -2.0494759 1.0500001
4.7496729 -2.0494759 1.1
4.7496729 -2.0494759 1.15
4.7496729 -2.0494759 1.2
4.7496729 -2.0494759 1.25
4.7496729 -2.0494759 1.3000001
4.7496729 -2.0494759 1.35
4.7496729 -2.0494759 1.4
4.7496729 -2.0494759 1.45
4.7496729 -2.0494759 1.5
4.7496729 -2.0494759 1.5500001
4.7496729 -2.0494759 1.6
4.7496729 -2.0494759 1.65
4.7496729 -2.0494759 1.7
4.7496729 -2.0494759 1.75
4.7496729 -2.0494759 1.8000001
4.7496729 -2.0494759 1.85
4.7496729 -2.0494759 1.9
4.7496729 -2.0494759 1.95
4.7996731 -2.0494759 0
4.7996731 -2.0494759 0.050000001
4.7996731 -2.0494759 0.1
4.7996731 -2.0494759 0.15000001
4.7996731 -2.0494759 0.2
4.7996731 -2.0494759 0.25
4.7996731 -2.0494759 0.30000001
4.7996731 -2.0494759 0.34999999
4.7996731 -2.0494759 0.40000001
4.7996731 -2.0494759 0.45000002
4.7996731 -2.0494759 0.5
4.7996731 -2.0494759 0.55000001
4.7996731 -2.0494759 0.60000002
4.7996731 -2.0494759 0.65000004
4.7996731 -2.0494759 0.69999999
4.7996731 -2.0494759 0.75
4.7996731 -2.0494759 0.80000001
4.7996731 -2.0494759 0.85000002
4.7996731 -2.0494759 0.90000004
4.7996731 -2.0494759 0.94999999
4.7996731 -2.0494759 1
4.7996731 -2.0494759 1.0500001
4.7996731 -2.0494759 1.1
4.7996731 -2.0494759 1.15
4.7996731 -2.0494759 1.2
4.7996731 -2.0494759 1.25
4.7996731 -2.0494759 1.3000001
4.7996731 -2.0494759 1.35
4.7996731 -2.0494759 1.4
4.7996731 -2.0494759 1.45
4.7996731 -2.0494759 1.5
4.7996731 -2.0494759 1.5500001
4.7996731 -2.0494759 1.6
4.7996731 -2.0494759 1.65
4.7996731 -2.0494759 1.7
4.7996731 -2.0494759 1.75
4.7996731 -2.0494759 1.8000001
4.7996731 -2.0494759 1.85
4.7996731 -2.0494759 1.9
4.7996731 -2.0494759 1.95
4.8496733 -2.0494759 0
4.8496733 -2.0494759 0.050000001
4.8496733 -2.0494759 0.1
4.8496733 -2.0494759 0.15000001
4.8496733 -2.0494759 0.2
4.8496733 -2.0494759 0.25
4.8496733 -2.0494759 0.30000001
4.8496733 -2.0494759 0.34999999
4.8496733 -2.0494759 0.40000001
4.8496733 -2.0494759 0.45000002
4.8496733 -2.0494759 0.5
4.8496733 -2.0494759 0.55000001
4.8496733 -2.0494759 0.60000002
4.8496733 -2.0494759 0.65000004
4.8496733 -2.0494759 0.69999999
4.8496733 -2.0494759 0.75
4.8496733 -2.0494759 0.80000001
4.8496733 -2.0494759 0.85000002
4.8496733 -2.0494759 0.90000004
4.8496733 -2.0494759 0.94999999
4.8496733 -2.0494759 1
4.8496733 -2.0494759 1.0500001
4.8496733 -2.0494759 1.1
4.8496733 -2.0494759 1.15
4.8496733 -2.0494759 1.2
4.8496733 -2.0494759 1.25
4.8496733 -2.0494759 1.3000001
4.8496733 -2.0494759 1.35
4.8496733 -2.0494759 1.4
4.8496733 -2.0494759 1.45
4.8496733 -2.0494759 1.5
4.8496733 -2.0494759 1.5500001
4.8496733 -2.0494759 1.6
4.8496733 -2.0494759 1.65
4.8496733 -2.0494759 1.7
4.8496733 -2.0494759 1.75
4.8496733 -2.0494759 1.8000001
4.8496733 -2.0494759 1.85
4.8496733 -2.0494759 1.9
4.8496733 -2.0494759 1.95
4.899673 -2.0494759 0
4.899673 -2.0494759 0.050000001
4.899673 -2.0494759 0.1
4.899673 -2.0494759 0.15000001
4.899673 -2.0494759 0.2
4.899673 -2.0494759 0.25
4.899673 -2.0494759 0.30000001
4.899673 -2.0494759 0.34999999
4.899673 -2.0494759 0.40000001
4.899673 -2.0494759 0.45000002
4.899673 -2.0494759 0.5
4.899673 -2.0494759 0.55000001
4.899673 -2.0494759 0.60000002
4.899673 -2.0494759 0.65000004
4.899673 -2.0494759 0.69999999
4.899673 -2.0494759 0.75
4.899673 -2.0494759 0.80000001
4.899673 -2.0494759 0.85000002
4.899673 -2.0494759 0.90000004
4.899673 -2.0494759 0.94999999
4.899673 -2.0494759 1
4.899673 -2.0494759 1.0500001
4.899673 -2.0494759 1.1
4.899673 -2.0494759 1.15
4.899673 -2.0494759 1.2
4.899673 -2.0494759 1.25
4.899673 -2.0494759 1.3000001
4.899673 -2.0494759 1.35
4.899673 -2.0494759 1.4
4.899673 -2.0494759 1.45
4.899673 -2.0494759 1.5
4.899673 -2.0494759 1.5500001
4.899673 -2.0494759 1.6
4.899673 -2.0494759 1.65
4.899673 -2.0494759 1.7
4.899673 -2.0494759 1.75
4.899673 -2.0494759 1.8000001
4.899673 -2.0494759 1.85
4.899673 -2.0494759 1.9
4.899673 -2.0494759 1.95
4.9496732 -2.0494759 0
4.9496732 -2.0494759 0.050000001
4.9496732 -2.0494759 0.1
4.9496732 -2.0494759 0.15000001
4.9496732 -2.0494759 0.2
4.9496732 -2.0494759 0.25
4.9496732 -2.0494759 0.30000001
4.9496732 -2.0494759 0.34999999
4.9496732 -2.0494759 0.40000001
4.9496732 -2.0494759 0.45000002
4.9496732 -2.0494759 0.5
4.9496732 -2.0494759 0.55000001
4.9496732 -2.0494759 0.60000002
4.9496732 -2.0494759 0.65000004
4.9496732 -2.0494759 0.69999999
4.9496732 -2.0494759 0.75
4.9496732 -2.0494759 0.80000001
4.9496732 -2.0494759 0.85000002
4.9496732 -2.0494759 0.90000004
4.9496732 -2.0494759 0.94999999
4.9496732 -2.0494759 1
4.9496732 -2.0494759 1.0500001
4.9496732 -2.0494759 1.1
4.9496732 -2.0494759 1.15
4.9496732 -2.0494759 1.2
4.9496732 -2.0494759 1.25
4.9496732 -2.0494759 1.3000001
4.9496732 -2.0494759 1.35
4.9496732 -2.0494759 1.4
4.9496732 -2.0494759 1.45
4.9496732 -2.0494759 1.5
4.9496732 -2.0494759 1.5500001
4.9496732 -2.0494759 1.6
4.9496732 -2.0494759 1.65
4.9496732 -2.0494759 1.7
4.9496732 -2.0494759 1.75
4.9496732 -2.0494759 1.8000001
4.9496732 -2.0494759 1.85
4.9496732 -2.0494759 1.9
4.9496732 -2.0494759 1.95
6.2496729 -2.0494759 0
6.2496729 -2.0494759 0.050000001
6.2496729 -2.0494759 0.1
6.2496729 -2.0494759 0.15000001
6.2496729 -2.0494759 0.2
6.2496729 -2.0494759 0.25
6.2496729 -2.0494759 0.30000001
6.2496729 -2.0494759 0.34999999
6.2496729 -2.0494759 0.40000001
6.2496729 -2.0494759 0.45000002
6.2496729 -2.0494759 0.5
6.2496729 -2.0494759 0.55000001
6.2496729 -2.0494759 0.60000002
6.2496729 -2.0494759 0.65000004
6.2496729 -2.0494759 0.69999999
6.2496729 -2.0494759 0.75
6.2496729 -2.0494759 0.80000001
6.2496729 -2.0494759 0.85000002
6.2496729 -2.0494759 0.90000004
6.2496729 -2.0494759 0.94999999
6.2496729 -2.0494759 1
6.2496729 -2.0494759 1.0500001
6.2496729 -2.0494759 1.1
6.2496729 -2.0494759 1.15
6.2496729 -2.0494759 1.2
6.2496729 -2.0494759 1.25
6.2496729 -2.0494759 1.3000001
6.2496729 -2.0494759 1.35
6.2496729 -2.0494759 1.4
6.2496729 -2.0494759 1.45
6.2496729 -2.0494759 1.5
6.2496729 -2.0494759 1.5500001
6.2496729 -2.0494759 1.6
6.2496729 -2.0494759 1.65
6.2496729 -2.0494759 1.7
6.2496729 -2.0494759 1.75
6.2496729 -2.0494759 1.8000001
6.2496729 -2.0494759 1.85
6.2496729 -2.0494759 1.9
6.2496729 -2.0494759 1.95
6.2996731 -2.0494759 0
6.2996731 -2.0494759 0.050000001
6.2996731 -2.0494759 0.1
6.2996731 -2.0494759 0.15000001
6.2996731 -2.0494759 0.2
6.2996731 -2.0494759 0.25
6.2996731 -2.0494759 0.30000001
6.2996731 -2.0494759 0.34999999
6.2996731 -2.0494759 0.40000001
6.2996731 -2.0494759 0.45000002
6.2996731 -2.0494759 0.5
6.2996731 -2.0494759 0.55000001
6.2996731 -2.0494759 0.60000002
6.2996731 -2.0494759 0.65000004
6.2996731 -2.0494759 0.69999999
6.2996731 -2.0494759 0.75
6.2996731 -2.0494759 0.80000001
6.2996731 -2.0494759 0.85000002
6.2996731 -2.0494759 0.90000004
6.2996731 -2.0494759 0.94999999
6.2996731 -2.0494759 1
6.2996731 -2.0494759 1.0500001
6.2996731 -2.0494759 1.1
6.2996731 -2.0494759 1.15
6.2996731 -2.0494759 1.2
6.2996731 -2.0494759 1.25
6.2996731 -2.0494759 1.3000001
6.2996731 -2.0494759 1.35
6.2996731 -2.0494759 1.4
6.2996731 -2.0494759 1.45
6.2996731 -2.0494759 1.5
6.2996731 -2.0494759 1.5500001
6.2996731 -2.0494759 1.6
6.2996731 -2.0494759 1.65
6.2996731 -2.0494759 1.7
6.2996731 -2.0494759 1.75
6.2996731 -2.0494759 1.8000001
6.2996731 -2.0494759 1.85
6.2996731 -2.0494759 1.9
6.2996731 -2.0494759 1.95
-0.70032698 -1.999476 0
-0.70032698 -1.999476 0.050000001
-0.70032698 -1.999476 0.1
-0.70032698 -1.999476 0.15000001
-0.70032698 -1.999476 0.2
-0.70032698 -1.999476 0.25
-0.70032698 -1.999476 0.30000001
-0.70032698 -1.999476 0.34999999
-0.70032698 -1.999476 0.40000001
-0.70032698 -1.999476 0.45000002
-0.70032698 -1.999476 0.5
-0.70032698 -1.999476 0.55000001
-0.70032698 -1.999476 0.60000002
-0.70032698 -1.999476 0.65000004
-0.70032698 -1.999476 0.69999999
-0.70032698 -1.999476 0.75
-0.70032698 -1.999476 0.80000001
-0.70032698 -1.999476 0.85000002
-0.70032698 -1.999476 0.90000004
-0.70032698 -1.999476 0.94999999
-0.70032698 -1.999476 1
-0.70032698 -1.999476 1.0500001
-0.70032698 -1.999476 1.1
-0.70032698 -1.999476 1.15
-0.70032698 -1.999476 1.2
-0.70032698 -1.999476 1.25
-0.70032698 -1.999476 1.3000001
-0.70032698 -1.999476 1.35
-0.70032698 -1.999476 1.4
-0.70032698 -1.999476 1.45
-0.70032698 -1.999476 1.5
-0.70032698 -1.999476 1.5500001
-0.70032698 -1.999476 1.6
-0.70032698 -1.999476 1.65
-0.70032698 -1.999476 1.7
-0.70032698 -1.999476 1.75
-0.70032698 -1.999476 1.8000001
-0.70032698 -1.999476 1.85
-0.70032698 -1.999476 1.9
-0.70032698 -1.999476 1.95
-0.65032703 -1.999476 0
-0.65032703 -1.999476 0.050000001
-0.65032703 -1.999476 0.1
-0.65032703 -1.999476 0.15000001
-0.65032703 -1.999476 0.2
-0.65032703 -1.999476 0.25
-0.65032703 -1.999476 0.30000001
-0.65032703 -1.999476 0.34999999
-0.65032703 -1.999476 0.40000001
-0.65032703 -1.999476 0.45000002
-0.65032703 -1.999476 0.5
-0.65032703 -1.999476 0.55000001
-0.65032703 -1.999476 0.60000002
-0.65032703 -1.999476 0.65000004
-0.65032703 -1.999476 0.69999999
-0.65032703 -1.999476 0.75
-0.65032703 -1.999476 0.80000001
-0.65032703 -1.999476 0.85000002
-0.65032703 -1.999476 0.90000004
-0.65032703 -1.999476 0.94999999
-0.65032703 -1.999476 1
-0.65032703 -1.999476 1.0500001
-0.65032703 -1.999476 1.1
-0.65032703 -1.999476 1.15
-0.65032703 -1.999476 1.2
-0.65032703 -1.999476 1.25
-0.65032703 -1.999476 1.3000001
-0.65032703 -1.999476 1.35
-0.65032703 -1.999476 1.4
-0.65032703 -1.999476 1.45
-0.65032703 -1.999476 1.5
-0.65032703 -1.999476 1.5500001
-0.65032703 -1.999476 1.6
-0.65032703 -1.999476 1.65
-0.65032703 -1.999476 1.7
-0.65032703 -1.999476 1.75
-0.65032703 -1.999476 1.8000001
-0.65032703 -1.999476 1.85
-0.65032703 -1.999476 1.9
-0.65032703 -1.999476 1.95
2.6996729 -1.999476 0
2.6996729 -1.999476 0.050000001
2.6996729 -1.999476 0.1
2.6996729 -1.999476 0.15000001
2.6996729 -1.999476 0.2
2.6996729 -1.999476 0.25
2.6996729 -1.999476 0.30000001
2.6996729 -1.999476 0.34999999
2.6996729 -1.999476 0.40000001
2.6996729 -1.999476 0.45000002
2.6996729 -1.999476 0.5
2.6996729 -1.999476 0.55000001
2.6996729 -1.999476 0.60000002
2.6996729 -1.999476 0.65000004
2.6996729 -1.999476 0.69999999
2.6996729 -1.999476 0.75
2.6996729 -1.999476 0.80000001
2.6996729 -1.999476 0.85000002
2.6996729 -1.999476 0.90000004
2.6996729 -1.999476 0.94999999
2.6996729 -1.999476 1
2.6996729 -1.999476 1.0500001
2.6996729 -1.999476 1.1
2.6996729 -1.999476 1.15
2.6996729 -1.999476 1.2
2.6996729 -1.999476 1.25
2.6996729 -1.999476 1.3000001
2.6996729 -1.999476 1.35
2.6996729 -1.999476 1.4
2.6996729 -1.999476 1.45
2.6996729 -1.999476 1.5
2.6996729 -1.999476 1.5500001
2.6996729 -1.999476 1.6
2.6996729 -1.999476 1.65
2.6996729 -1.999476 1.7
2.6996729 -1.999476 1.75
2.6996729 -1.999476 1.8000001
2.6996729 -1.999476 1.85
2.6996729 -1.999476 1.9
2.6996729 -1.999476 1.95
2.7496731 -1.999476 0
2.7496731 -1.999476 0.050000001
2.7496731 -1.999476 0.1
2.7496731 -1.999476 0.15000001
2.7496731 -1.999476 0.2
2.7496731 -1.999476 0.25
2.7496731 -1.999476 0.30000001
2.7496731 -1.999476 0.34999999
2.7496731 -1.999476 0.40000001
2.7496731 -1.999476 0.45000002
2.7496731 -1.999476 0.5
2.7496731 -1.999476 0.55000001
2.7496731 -1.999476 0.60000002
2.7496731 -1.999476 0.65000004
2.7496731 -1.999476 0.69999999
2.7496731 -1.999476 0.75
2.7496731 -1.999476 0.80000001
2.7496731 -1.999476 0.85000002
2.7496731 -1.999476 0.90000004
2.7496731 -1.999476 0.94999999
2.7496731 -1.999476 1
2.7496731 -1.999476 1.0500001
2.7496731 -1.999476 1.1
2.7496731 -1.999476 1.15
2.7496731 -1.999476 1.2
2.7496731 -1.999476 1.25
2.7496731 -1.999476 1.3000001
2.7496731 -1.999476 1.35
2.7496731 -1.999476 1.4
2.7496731 -1.999476 1.45
2.7496731 -1.999476 1.5
2.7496731 -1.999476 1.5500001
2.7496731 -1.999476 1.6
2.7496731 -1.999476 1.65
2.7496731 -1.999476 1.7
2.7496731 -1.999476 1.75
2.7496731 -1.999476 1.8000001
2.7496731 -1.999476 1.85
2.7496731 -1.999476 1.9
2.7496731 -1.999476 1.95
2.7996731 -1.999476 0
2.7996731 -1.999476 0.050000001
2.7996731 -1.999476 0.1
2.7996731 -1.999476 0.15000001
2.7996731 -1.999476 0.2
2.7996731 -1.999476 0.25
2.7996731 -1.999476 0.30000001
2.7996731 -1.999476 0.34999999
2.7996731 -1.999476 0.40000001
2.7996731 -1.999476 0.45000002
2.7996731 -1.999476 0.5
2.7996731 -1.999476 0.55000001
2.7996731 -1.999476 0.60000002
2.7996731 -1.999476 0.65000004
2.7996731 -1.999476 0.69999999
2.7996731 -1.999476 0.75
2.7996731 -1.999476 0.80000001
2.7996731 -1.999476 0.85000002
2.7996731 -1.999476 0.90000004
2.7996731 -1.999476 0.94999999
2.7996731 -1.999476 1
2.7996731 -1.999476 1.0500001
2.7996731 -1.999476 1.1
2.7996731 -1.999476 1.15
2.7996731 -1.999476 1.2
2.7996731 -1.999476 1.25
2.7996731 -1.999476 1.3000001
2.7996731 -1.999476 1.35
2.7996731 -1.999476 1.4
2.7996731 -1.999476 1.45
2.7996731 -1.999476 1.5
2.7996731 -1.999476 1.5500001
2.7996731 -1.999476 1.6
2.7996731 -1.999476 1.65
2.7996731 -1.999476 1.7
2.7996731 -1.999476 1.75
2.7996731 -1.999476 1.8000001
2.7996731 -1.999476 1.85
2.7996731 -1.999476 1.9
2.7996731 -1.999476 1.95
2.849673 -1.999476 0
2.849673 -1.999476 0.050000001
2.849673 -1.999476 0.1
2.849673 -1.999476 0.15000001
2.849673 -1.999476 0.2
2.849673 -1.999476 0.25
2.849673 -1.999476 0.30000001
2.849673 -1.999476 0.34999999
2.849673 -1.999476 0.40000001
2.849673 -1.999476 0.45000002
2.849673 -1.999476 0.5
2.849673 -1.999476 0.55000001
2.849673 -1.999476 0.60000002
2.849673 -1.999476 0.65000004
2.849673 -1.999476 0.69999999
2.849673 -1.999476 0.75
2.849673 -1.999476 0.80000001
2.849673 -1.999476 0.85000002
2.849673 -1.999476 0.90000004
2.849673 -1.999476 0.94999999
2.849673 -1.999476 1
2.849673 -1.999476 1.0500001
2.849673 -1.999476 1.1
2.849673 -1.999476 1.15
2.849673 -1.999476 1.2
2.849673 -1.999476 1.25
2.849673 -1.999476 1.3000001
2.849673 -1.999476 1.35
2.849673 -1.999476 1.4
2.849673 -1.999476 1.45
2.849673 -1.999476 1.5
2.849673 -1.999476 1.5500001
2.849673 -1.999476 1.6
2.849673 -1.999476 1.65
2.849673 -1.999476 1.7
2.849673 -1.999476 1.75
2.849673 -1.999476 1.8000001
2.849673 -1.999476 1.85
2.849673 -1.999476 1.9
2.849673 -1.999476 1.95
4.7496729 -1.999476 0
4.7496729 -1.999476 0.050000001
4.7496729 -1.999476 0.1
4.7496729 -1.999476 0.15000001
4.7496729 -1.999476 0.2
4.7496729 -1.999476 0.25
4.7496729 -1.999476 0.30000001
4.7496729 -1.999476 0.34999999
4.7496729 -1.999476 0.40000001
4.7496729 -1.999476 0.45000002
4.7496729 -1.999476 0.5
4.7496729 -1.999476 0.55000001
4.7496729 -1.999476 0.60000002
4.7496729 -1.999476 0.65000004
4.7496729 -1.999476 0.69999999
4.7496729 -1.999476 0.75
4.7496729 -1.999476 0.80000001
4.7496729 -1.999476 0.85000002
4.7496729 -1.999476 0.90000004
4.7496729 -1.999476 0.94999999
4.7496729 -1.999476 1
4.7496729 -1.999476 1.0500001
4.7496729 -1.999476 1.1
4.7496729 -1.999476 1.15
4.7496729 -1.999476 1.2
4.7496729 -1.999476 1.25
4.7496729 -1.999476 1.3000001
4.7496729 -1.999476 1.35
4.7496729 -1.999476 1.4
4.7496729 -1.999476 1.45
4.7496729 -1.999476 1.5
4.7496729 -1.999476 1.5500001
4.7496729 -1.999476 1.6
4.7496729 -1.999476 1.65
4.7496729 -1.999476 1.7
4.7496729 -1.999476 1.75
4.7496729 -1.999476 1.8000001
4.7496729 -1.999476 1.85
4.7496729 -1.999476 1.9
4.7496729 -1.999476 1.95
4.7996731 -1.999476 0
4.7996731 -1.999476 0.050000001
4.7996731 -1.999476 0.1
4.7996731 -1.999476 0.15000001
4.7996731 -1.999476 0.2
4.7996731 -1.999476 0.25
4.7996731 -1.999476 0.30000001
4.7996731 -1.999476 0.34999999
4.7996731 -1.999476 0.40000001
4.7996731 -1.999476 0.45000002
4.7996731 -1.999476 0.5
4.7996731 -1.999476 0.55000001
4.7996731 -1.999476 0.60000002
4.7996731 -1.999476 0.65000004
4.7996731 -1.999476 0.69999999
4.7996731 -1.999476 0.75
4.7996731 -1.999476 0.80000001
4.7996731 -1.999476 0.85000002
4.7996731 -1.999476 0.90000004
4.7996731 -1.999476 0.94999999
4.7996731 -1.999476 1
4.7996731 -1.999476 1.0500001
4.7996731 -1.999476 1.1
4.7996731 -1.999476 1.15
4.7996731 -1.999476 1.2
4.7996731 -1.999476 1.25
4.7996731 -1.999476 1.3000001
4.7996731 -1.999476 1.35
4.7996731 -1.999476 1.4
4.7996731 -1.999476 1.45
4.7996731 -1.999476 1.5
4.7996731 -1.999476 1.5500001
4.7996731 -1.999476 1.6
4.7996731 -1.999476 1.65
4.7996731 -1.999476 1.7
4.7996731 -1.999476 1.75
4.7996731 -1.999476 1.8000001
4.7996731 -1.999476 1.85
4.7996731 -1.999476 1.9
4.7996731 -1.999476 1.95
4.8496733 -1.999476 0
4.8496733 -1.999476 0.050000001
4.8496733 -1.999476 0.1
4.8496733 -1.999476 0.15000001
4.8496733 -1.999476 0.2
4.8496733 -1.999476 0.25
4.8496733 -1.999476 0.30000001
4.8496733 -1.999476 0.34999999
4.8496733 -1.999476 0.40000001
4.8496733 -1.999476 0.45000002
4.8496733 -1.999476 0.5
4.8496733 -1.999476 0.55000001
4.8496733 -1.999476 0.60000002
4.8496733 -1.999476 0.65000004
4.8496733 -1.999476 0.69999999
4.8496733 -1.999476 0.75
4.8496733 -1.999476 0.80000001
4.8496733 -1.999476 0.85000002
4.8496733 -1.999476 0.90000004
4.8496733 -1.999476 0.94999999
4.8496733 -1.999476 1
4.8496733 -1.999476 1.0500001
4.8496733 -1.999476 1.1
4.8496733 -1.999476 1.15
4.8496733 -1.999476 1.2
4.8496733 -1.999476 1.25
4.8496733 -1.999476 1.3000001
4.8496733 -1.999476 1.35
4.8496733 -1.999476 1.4
4.8496733 -1.999476 1.45
4.8496733 -1.999476 1.5
4.8496733 -1.999476 1.5500001
4.8496733 -1.999476 1.6
4.8496733 -1.999476 1.65
4.8496733 -1.999476 1.7
4.8496733 -1.999476 1.75
4.8496733 -1.999476 1.8000001
4.8496733 -1.999476 1.85
4.8496733 -1.999476 1.9
4.8496733 -1.999476 1.95
4.899673 -1.999476 0
4.899673 -1.999476 0.050000001
4.899673 -1.999476 0.1
4.899673 -1.999476 0.15000001
4.899673 -1.999476 0.2
4.899673 -1.999476 0.25
4.899673 -1.999476 0.30000001
4.899673 -1.999476 0.34999999
4.899673 -1.999476 0.40000001
4.899673 -1.999476 0.45000002
4.899673 -1.999476 0.5
4.899673 -1.999476 0.55000001
4.899673 -1.999476 0.60000002
4.899673 -1.999476 0.65000004
4.899673 -1.999476 0.69999999
4.899673 -1.999476 0.75
4.899673 -1.999476 0.80000001
4.899673 -1.999476 0.85000002
4.899673 -1.999476 0.90000004
4.899673 -1.999476 0.94999999
4.899673 -1.999476 1
4.899673 -1.999476 1.0500001
4.899673 -1.999476 1.1
4.899673 -1.999476 1.15
4.899673 -1.999476 1.2
4.899673 -1.999476 1.25
4.899673 -1.999476 1.3000001
4.899673 -1.999476 1.35
4.899673 -1.999476 1.4
4.899673 -1.999476 1.45
4.899673 -1.999476 1.5
4.899673 -1.999476 1.5500001
4.899673 -1.999476 1.6
4.899673 -1.999476 1.65
4.899673 -1.999476 1.7
4.899673 -1.999476 1.75
4.899673 -1.999476 1.8000001
4.899673 -1.999476 1.85
4.899673 -1.999476 1.9
4.899673 -1.999476 1.95
4.9496732 -1.999476 0
4.9496732 -1.999476 0.050000001
4.9496732 -1.999476 0.1
4.9496732 -1.999476 0.15000001
4.9496732 -1.999476 0.2
4.9496732 -1.999476 0.25
4.9496732 -1.999476 0.30000001
4.9496732 -1.999476 0.34999999
4.9496732 -1.999476 0.40000001
4.9496732 -1.999476 0.45000002
4.9496732 -1.999476 0.5
4.9496732 -1.999476 0.55000001
4.9496732 -1.999476 0.60000002
4.9496732 -1.999476 0.65000004
4.9496732 -1.999476 0.69999999
4.9496732 -1.999476 0.75
4.9496732 -1.999476 0.80000001
4.9496732 -1.999476 0.85000002
4.9496732 -1.999476 0.90000004
4.9496732 -1.999476 0.94999999
4.9496732 -1.999476 1
4.9496732 -1.999476 1.0500001
4.9496732 -1.999476 1.1
4.9496732 -1.999476 1.15
4.9496732 -1.999476 1.2
4.9496732 -1.999476 1.25
4.9496732 -1.999476 1.3000001
4.9496732 -1.999476 1.35
4.9496732 -1.999476 1.4
4.9496732 -1.999476 1.45
4.9496732 -1.999476 1.5
4.9496732 -1.999476 1.5500001
4.9496732 -1.999476 1.6
4.9496732 -1.999476 1.65
4.9496732 -1.999476 1.7
4.9496732 -1.999476 1.75
4.9496732 -1.999476 1.8000001
4.9496732 -1.999476 1.85
4.9496732 -1.999476 1.9
4.9496732 -1.999476 1.95
6.2496729 -1.999476 0
6.2496729 -1.999476 0.050000001
6.2496729 -1.999476 0.1
6.2496729 -1.999476 0.15000001
6.2496729 -1.999476 0.2
6.2496729 -1.999476 0.25
6.2496729 -1.999476 0.30000001
6.2496729 -1.999476 0.34999999
6.2496729 -1.999476 0.40000001
6.2496729 -1.999476 0.45000002
6.2496729 -1.999476 0.5
6.2496729 -1.999476 0.55000001
6.2496729 -1.999476 0.60000002
6.2496729 -1.999476 0.65000004
6.2496729 -1.999476 0.69999999
6.2496729 -1.999476 0.75
6.2496729 -1.999476 0.80000001
6.2496729 -1.999476 0.85000002
6.2496729 -1.999476 0.90000004
6.2496729 -1.999476 0.94999999
6.2496729 -1.999476 1
6.2496729 -1.999476 1.0500001
6.2496729 -1.999476 1.1
6.2496729 -1.999476 1.15
6.2496729 -1.999476 1.2
6.2496729 -1.999476 1.25
6.2496729 -1.999476 1.3000001
6.2496729 -1.999476 1.35
6.2496729 -1.999476 1.4
6.2496729 -1.999476 1.45
6.2496729 -1.999476 1.5
6.2496729 -1.999476 1.5500001
6.2496729 -1.999476 1.6
6.2496729 -1.999476 1.65
6.2496729 -1.999476 1.7
6.2496729 -1.999476 1.75
6.2496729 -1.999476 1.8000001
6.2496729 -1.999476 1.85
6.2496729 -1.999476 1.9
6.2496729 -1.999476 1.95
6.2996731 -1.999476 0
6.2996731 -1.999476 0.050000001
6.2996731 -1.999476 0.1
6.2996731 -1.999476 0.15000001
6.2996731 -1.999476 0.2
6.2996731 -1.999476 0.25
6.2996731 -1.999476 0.30000001
6.2996731 -1.999476 0.34999999
6.2996731 -1.999476 0.40000001
6.2996731 -1.999476 0.45000002
6.2996731 -1.999476 0.5
6.2996731 -1.999476 0.55000001
6.2996731 -1.999476 0.60000002
6.2996731 -1.999476 0.65000004
6.2996731 -1.999476 0.69999999
6.2996731 -1.999476 0.75
6.2996731 -1.999476 0.80000001
6.2996731 -1.999476 0.85000002
6.2996731 -1.999476 0.90000004
6.2996731 -1.999476 0.94999999
6.2996731 -1.999476 1
6.2996731 -1.999476 1.0500001
6.2996731 -1.999476 1.1
6.2996731 -1.999476 1.15
6.2996731 -1.999476 1.2
6.2996731 -1.999476 1.25
6.2996731 -1.999476 1.3000001
6.2996731 -1.999476 1.35
6.2996731 -1.999476 1.4
6.2996731 -1.999476 1.45
6.2996731 -1.999476 1.5
6.2996731 -1.999476 1.5500001
6.2996731 -1.999476 1.6
6.2996731 -1.999476 1.65
6.2996731 -1.999476 1.7
6.2996731 -1.999476 1.75
6.2996731 -1.999476 1.8000001
6.2996731 -1.999476 1.85
6.2996731 -1.999476 1.9
6.2996731 -1.999476 1.95
-0.70032698 -1.9494759 0
-0.70032698 -1.9494759 0.050000001
-0.70032698 -1.9494759 0.1
-0.70032698 -1.9494759 0.15000001
-0.70032698 -1.9494759 0.2
-0.70032698 -1.9494759 0.25
-0.70032698 -1.9494759 0.30000001
-0.70032698 -1.9494759 0.34999999
-0.70032698 -1.9494759 0.40000001
-0.70032698 -1.9494759 0.45000002
-0.70032698 -1.9494759 0.5
-0.70032698 -1.9494759 0.55000001
-0.70032698 -1.9494759 0.60000002
-0.70032698 -1.9494759 0.65000004
-0.70032698 -1.9494759 0.69999999
-0.70032698 -1.9494759 0.75
-0.70032698 -1.9494759 0.80000001
-0.70032698 -1.9494759 0.85000002
-0.70032698 -1.9494759 0.90000004
-0.70032698 -1.9494759 0.94999999
-0.70032698 -1.9494759 1
-0.70032698 -1.9494759 1.0500001
-0.70032698 -1.9494759 1.1
-0.70032698 -1.9494759 1.15
-0.70032698 -1.9494759 1.2
-0.70032698 -1.9494759 1.25
-0.70032698 -1.9494759 1.3000001
-0.70032698 -1.9494759 1.35
-0.70032698 -1.9494759 1.4
-0.70032698 -1.9494759 1.45
-0.70032698 -1.9494759 1.5
-0.70032698 -1.9494759 1.5500001
-0.70032698 -1.9494759 1.6
-0.70032698 -1.9494759 1.65
-0.70032698 -1.9494759 1.7
-0.70032698 -1.9494759 1.75
-0.70032698 -1.9494759 1.8000001
-0.70032698 -1.9494759 1.85
-0.70032698 -1.9494759 1.9
-0.70032698 -1.9494759 1.95
-0.65032703 -1.9494759 0
-0.65032703 -1.9494759 0.050000001
-0.65032703 -1.9494759 0.1
-0.65032703 -1.9494759 0.15000001
-0.65032703 -1.9494759 0.2
-0.65032703 -1.9494759 0.25
-0.65032703 -1.9494759 0.30000001
-0.65032703 -1.9494759 0.34999999
-0.65032703 -1.9494759 0.40000001
-0.65032703 -1.9494759 0.45000002
-0.65032703 -1.9494759 0.5
-0.65032703 -1.9494759 0.55000001
-0.65032703 -1.9494759 0.60000002
-0.65032703 -1.9494759 0.65000004
-0.65032703 -1.9494759 0.69999999
-0.65032703 -1.9494759 0.75
-0.65032703 -1.9494759 0.80000001
-0.65032703 -1.9494759 0.85000002
-0.65032703 -1.9494759 0.90000004
-0.65032703 -1.9494759 0.94999999
-0.65032703 -1.9494759 1
-0.65032703 -1.9494759 1.0500001
-0.65032703 -1.9494759 1.1
-0.65032703 -1.9494759 1.15
-0.65032703 -1.9494759 1.2
-0.65032703 -1.9494759 1.25
-0.65032703 -1.9494759 1.3000001
-0.65032703 -1.9494759 1.35
-0.65032703 -1.9494759 1.4
-0.65032703 -1.9494759 1.45
-0.65032703 -1.9494759 1.5
-0.65032703 -1.9494759 1.5500001
-0.65032703 -1.9494759 1.6
-0.65032703 -1.9494759 1.65
-0.65032703 -1.9494759 1.7
-0.65032703 -1.9494759 1.75
-0.65032703 -1.9494759 1.8000001
-0.65032703 -1.9494759 1.85
-0.65032703 -1.9494759 1.9
-0.65032703 -1.9494759 1.95
2.6996729 -1.9494759 0
2.6996729 -1.9494759 0.050000001
2.6996729 -1.9494759 0.1
2.6996729 -1.9494759 0.15000001
2.6996729 -1.9494759 0.2
2.6996729 -1.9494759 0.25
2.6996729 -1.9494759 0.30000001
2.6996729 -1.9494759 0.34999999
2.6996729 -1.9494759 0.40000001
2.6996729 -1.9494759 0.45000002
2.6996729 -1.9494759 0.5
2.6996729 -1.9494759 0.55000001
2.6996729 -1.9494759 0.60000002
2.6996729 -1.9494759 0.65000004
2.6996729 -1.9494759 0.69999999
2.6996729 -1.9494759 0.75
2.6996729 -1.9494759 0.80000001
2.6996729 -1.9494759 0.85000002
2.6996729 -1.9494759 0.90000004
2.6996729 -1.9494759 0.94999999
2.6996729 -1.9494759 1
2.6996729 -1.9494759 1.0500001
2.6996729 -1.9494759 1.1
2.6996729 -1.9494759 1.15
2.6996729 -1.9494759 1.2
2.6996729 -1.9494759 1.25
2.6996729 -1.9494759 1.3000001
2.6996729 -1.9494759 1.35
2.6996729 -1.9494759 1.4
2.6996729 -1.9494759 1.45
2.6996729 -1.9494759 1.5
2.6996729 -1.9494759 1.5500001
2.6996729 -1.9494759 1.6
2.6996729 -1.9494759 1.65
2.6996729 -1.9494759 1.7
2.6996729 -1.9494759 1.75
2.6996729 -1.9494759 1.8000001
2.6996729 -1.9494759 1.85
2.6996729 -1.9494759 1.9
2.6996729 -1.9494759 1.95
2.7496731 -1.9494759 0
2.7496731 -1.9494759 0.050000001
2.7496731 -1.9494759 0.1
2.7496731 -1.9494759 0.15000001
2.7496731 -1.9494759 0.2
2.7496731 -1.9494759 0.25
2.7496731 -1.9494759 0.30000001
2.7496731 -1.9494759 0.34999999
2.7496731 -1.9494759 0.40000001
2.7496731 -1.9494759 0.45000002
2.7496731 -1.9494759 0.5
2.7496731 -1.9494759 0.55000001
2.7496731 -1.9494759 0.60000002
2.7496731 -1.9494759 0.65000004
2.7496731 -1.9494759 0.69999999
2.7496731 -1.9494759 0.75
2.7496731 -1.9494759 0.80000001
2.7496731 -1.9494759 0.85000002
2.7496731 -1.9494759 0.90000004
2.7496731 -1.9494759 0.94999999
2.7496731 -1.9494759 1
2.7496731 -1.9494759 1.0500001
2.7496731 -1.9494759 1.1
2.7496731 -1.9494759 1.15
2.7496731 -1.9494759 1.2
2.7496731 -1.9494759 1.25
2.7496731 -1.9494759 1.3000001
2.7496731 -1.9494759 1.35
2.7496731 -1.9494759 1.4
2.7496731 -1.9494759 1.45
2.7496731 -1.9494759 1.5
2.7496731 -1.9494759 1.5500001
2.7496731 -1.9494759 1.6
2.7496731 -1.9494759 1.65
2.7496731 -1.9494759 1.7
2.7496731 -1.9494759 1.75
2.7496731 -1.9494759 1.8000001
2.7496731 -1.9494759 1.85
2.7496731 -1.9494759 1.9
2.7496731 -1.9494759 1.95
2.7996731 -1.9494759 0
2.7996731 -1.9494759 0.050000001
2.7996731 -1.9494759 0.1
2.7996731 -1.9494759 0.15000001
2.7996731 -1.9494759 0.2
2.7996731 -1.9494759 0.25
2.7996731 -1.9494759 0.30000001
2.7996731 -1.9494759 0.34999999
2.7996731 -1.9494759 0.40000001
2.7996731 -1.9494759 0.45000002
2.7996731 -1.9494759 0.5
2.7996731 -1.9494759 0.55000001
2.7996731 -1.9494759 0.60000002
2.7996731 -1.9494759 0.65000004
2.7996731 -1.9494759 0.69999999
2.7996731 -1.9494759 0.75
2.7996731 -1.9494759 0.80000001
2.7996731 -1.9494759 0.85000002
2.7996731 -1.9494759 0.90000004
2.7996731 -1.9494759 0.94999999
2.7996731 -1.9494759 1
2.7996731 -1.9494759 1.0500001
2.7996731 -1.9494759 1.1
2.7996731 -1.9494759 1.15
2.7996731 -1.9494759 1.2
2.7996731 -1.9494759 1.25
2.7996731 -1.9494759 1.3000001
2.7996731 -1.9494759 1.35
2.7996731 -1.9494759 1.4
2.7996731 -1.9494759 1.45
